-3.947289 5.854757 57.832821
-3.837475 5.844917 57.735622
-3.728031 5.835111 57.638752
-3.618953 5.825336 57.542202
-3.516119 5.825336 57.542202
-3.442115 5.874537 58.028202
-3.344062 5.884477 58.126389
-3.240184 5.884477 58.126389
-3.136307 5.884477 58.126389
-2.552367 5.520200 54.528088
-2.454920 5.520200 54.528088
-2.361222 5.528976 54.614777
-2.274468 5.555473 54.876511
-2.176398 5.555473 54.876511
-2.078329 5.555473 54.876511
-1.980259 5.555473 54.876511
-1.891253 5.582224 55.140762
-1.804296 5.618297 55.497086
-1.707877 5.627388 55.586887
-1.611145 5.636509 55.676979
-1.499493 5.591199 55.229416
-1.396303 5.573279 55.052399
-1.293773 5.555473 54.876511
-1.195703 5.555473 54.876511
-1.097634 5.555473 54.876511
-1.001164 5.564362 54.964314
-0.904384 5.573279 55.052399
-0.809894 5.600203 55.318352
-0.714487 5.627388 55.586887
-0.615148 5.627388 55.586887
-0.515809 5.627388 55.586887
-0.416470 5.627388 55.586887
-0.317131 5.627388 55.586887
-0.217440 5.618297 55.497086
-0.118453 5.627388 55.586887
-0.019114 5.627388 55.586887
0.080486 5.645659 55.767365
0.180734 5.664049 55.949017
0.280720 5.664049 55.949017
0.380088 5.654839 55.858040
0.478356 5.636509 55.676979
0.574133 5.600203 55.318352
0.671911 5.591199 55.229416
0.769374 5.582224 55.140762
0.867916 5.582224 55.140762
0.964908 5.573279 55.052399
1.063292 5.573279 55.052399
1.157965 5.555473 54.876511
1.256034 5.555473 54.876511
1.354104 5.555473 54.876511
1.456828 5.573279 55.052399
1.555211 5.573279 55.052399
1.656250 5.582224 55.140762
1.754791 5.582224 55.140762
1.859302 5.600203 55.318352
-11.115047 2.148827 20.857738
-10.991017 2.131999 20.694395
-10.881926 2.117964 20.558167
-10.767859 2.102862 20.411583
-10.611584 2.079387 20.183722
-10.477022 2.060022 19.995749
-10.356889 2.043370 19.834120
-10.232822 2.025826 19.663820
-10.087967 2.004030 19.452263
-9.962939 1.986037 19.277607
-9.834667 1.967269 19.095440
-9.714146 1.949927 18.927105
-9.606223 1.935001 18.782228
-9.499941 1.920302 18.639553
-9.375067 1.901729 18.459267
-9.252585 1.883511 18.282434
-9.146894 1.868594 18.137644
-9.047603 1.854883 18.004557
-8.935810 1.838503 17.845556
-8.825974 1.822409 17.689339
-8.758283 1.814932 17.616768
-8.704480 1.810290 17.571711
-15.386450 3.211540 31.173044
-15.330741 3.211540 31.173044
-15.096937 3.174096 30.809593
-14.855352 3.134736 30.427542
-14.658159 3.104489 30.133944
-14.439645 3.069486 29.794186
-14.226003 3.035264 29.462004
-14.040890 3.006897 29.186657
-13.976855 3.004344 29.161880
-13.807528 2.979055 28.916410
-13.698200 2.966569 28.795219
-13.692650 2.976550 28.892090
-13.641017 2.976550 28.892090
-13.537751 2.976550 28.892090
-23.623571 5.717475 55.497086
-23.448629 5.699062 55.318352
-23.425215 5.717475 55.497086
-23.326036 5.717475 55.497086
-23.189394 5.708254 55.407574
-23.053194 5.699062 55.318352
-22.843977 5.671662 55.052399
-22.493265 5.608744 54.441673
-22.115585 5.538525 53.760086
-21.985106 5.529871 53.676086
-22.061537 5.573413 54.098732
-22.174377 5.626578 54.614777
-22.076777 5.626578 54.614777
-21.909510 5.608744 54.441673
-21.606766 5.555914 53.928879
-21.476673 5.547206 53.844349
-21.346991 5.538525 53.760086
-21.151611 5.512644 53.508873
-20.958052 5.487004 53.259995
-20.702387 5.444796 52.850300
-20.607939 5.444796 52.850300
-20.481979 5.436432 52.769119
-20.482063 5.461601 53.013420
-20.450443 5.478510 53.177547
-20.418625 5.495524 53.342693
-20.418413 5.521244 53.592350
-20.322639 5.521244 53.592350
-20.163950 5.504071 53.425655
-20.037312 5.495524 53.342693
-19.818884 5.461601 53.013420
-19.663454 5.444796 52.850300
-19.508978 5.428094 52.688183
-19.385088 5.419782 52.607498
-19.320662 5.428094 52.688183
-19.167706 5.411495 52.527058
-19.044714 5.403233 52.446865
-18.893297 5.386785 52.287209
-18.799854 5.386785 52.287209
-18.706413 5.386785 52.287209
-18.612970 5.386785 52.287209
-18.519529 5.386785 52.287209
-18.426086 5.386785 52.287209
-18.360590 5.394996 52.366913
-18.267006 5.394996 52.366913
-18.173422 5.394996 52.366913
-18.079836 5.394996 52.366913
-18.041256 5.411495 52.527058
-18.780144 5.662588 54.964314
-18.802252 5.699062 55.318352
-18.703392 5.699062 55.318352
-18.664644 5.717475 55.497086
-18.716652 5.764035 55.949017
-18.647034 5.773438 56.040287
-18.577190 5.782872 56.131855
-18.476877 5.782872 56.131855
-18.589186 5.849781 56.781315
-18.487713 5.849781 56.781315
-18.386240 5.849781 56.781315
-18.194544 5.820917 56.501144
-18.093573 5.820917 56.501144
-17.181032 5.653542 54.876511
-17.082962 5.653542 54.876511
-17.066681 5.680766 55.140762
-16.968140 5.680766 55.140762
-16.923929 5.699062 55.318352
-16.798019 5.689899 55.229416
-16.699320 5.689899 55.229416
-16.573973 5.680766 55.140762
-16.449028 5.671662 55.052399
-16.324484 5.662588 54.964314
-16.226257 5.662588 54.964314
-16.153877 5.671662 55.052399
-16.133055 5.699062 55.318352
-16.060059 5.708254 55.407574
-15.935337 5.699062 55.318352
-15.760342 5.671662 55.052399
-15.661958 5.671662 55.052399
-15.513850 5.653542 54.876511
-15.366686 5.635537 54.701744
-15.220455 5.617647 54.528088
-15.075151 5.599869 54.355530
-14.883811 5.564650 54.013672
-14.787284 5.564650 54.013672
-14.621785 5.538525 53.760086
-14.525711 5.538525 53.760086
-14.452254 5.547206 53.844349
-14.356029 5.547206 53.844349
-14.327173 5.573413 54.098732
-14.343434 5.617647 54.528088
-14.522609 5.726727 55.586887
-14.423269 5.726727 55.586887
-14.370437 5.745320 55.767365
-14.387557 5.792336 56.223724
-14.334000 5.811358 56.408367
-14.233192 5.811358 56.408367
-14.249375 5.859466 56.875324
-14.147735 5.859466 56.875324
-14.116206 5.888714 57.159229
-14.131625 5.938117 57.638752
-14.052197 5.948096 57.735622
-13.949018 5.948096 57.735622
-13.869148 5.958110 57.832821
-13.719602 5.938117 57.638752
-13.616595 5.938117 57.638752
-13.581955 5.968157 57.930347
-13.478428 5.968157 57.930347
-13.397494 5.978239 58.028202
-13.293792 5.978239 58.028202
-13.190090 5.978239 58.028202
-13.064321 5.968157 57.930347
-12.938973 5.958110 57.832821
-12.771120 5.928170 57.542202
-12.625989 5.908376 57.350075
-12.502626 5.898529 57.254494
-12.359110 5.878932 57.064278
-12.216544 5.859466 56.875324
-12.015437 5.811358 56.408367
-11.741117 5.726727 55.586887
-11.548344 5.680766 55.140762
-11.340583 5.626578 54.614777
-11.171936 5.591023 54.269661
-11.110054 5.608744 54.441673
-11.083018 5.644526 54.788990
-11.055635 5.680766 55.140762
-10.957093 5.680766 55.140762
-10.893523 5.699062 55.318352
-10.882283 5.745320 55.767365
-10.800154 5.754663 55.858040
-10.717758 5.764035 55.949017
-10.617771 5.764035 55.949017
-10.534944 5.773438 56.040287
-10.434794 5.773438 56.040287
-10.419634 5.820917 56.501144
-10.421505 5.878932 57.064278
-10.440931 5.948096 57.735622
-10.355156 5.958110 57.832821
-10.234573 5.948096 57.735622
-10.131394 5.948096 57.735622
-10.028215 5.948096 57.735622
-9.941746 5.958110 57.832821
-9.821857 5.948096 57.735622
-9.621654 5.888714 57.159229
-9.487930 5.869183 56.969643
-9.217965 5.764035 55.949017
-9.029740 5.708254 55.407574
-8.873474 5.671662 55.052399
-8.761050 5.662588 54.964314
-8.662824 5.662588 54.964314
-8.804068 5.820917 56.501144
-8.487190 5.811358 56.408367
-8.345273 5.782872 56.131855
-8.258454 5.792336 56.223724
-8.171351 5.801832 56.315895
-8.057500 5.792336 56.223724
-7.957023 5.792336 56.223724
-7.856546 5.792336 56.223724
-7.756069 5.792336 56.223724
-7.680733 5.811358 56.408367
-7.604901 5.830506 56.594227
-7.516145 5.840128 56.687618
-7.427094 5.849781 56.781315
-7.325621 5.849781 56.781315
-7.212226 5.840128 56.687618
-7.087529 5.820917 56.501144
-6.986556 5.820917 56.501144
-6.885583 5.820917 56.501144
-6.784610 5.820917 56.501144
-6.683638 5.820917 56.501144
-6.582664 5.820917 56.501144
-6.471048 5.811358 56.408367
-6.370242 5.811358 56.408367
-6.269434 5.811358 56.408367
-6.168627 5.811358 56.408367
-6.148590 5.888714 57.159229
-6.138363 5.978239 58.028202
-6.055118 5.998504 58.224907
-5.930959 5.978239 58.028202
-5.847011 5.998504 58.224907
-5.733240 5.988354 58.126389
-5.648478 6.008688 58.323761
-5.525486 5.988354 58.126389
-5.440018 6.008688 58.323761
-5.317731 5.988354 58.126389
-5.222691 5.998504 58.224907
-5.118637 5.998504 58.224907
-5.031640 6.018907 58.422951
-4.927233 6.018907 58.422951
-4.806477 5.998504 58.224907
-4.686537 5.978239 58.028202
-4.582835 5.978239 58.028202
-4.479133 5.978239 58.028202
-4.375432 5.978239 58.028202
-4.271729 5.978239 58.028202
-4.168028 5.978239 58.028202
-4.064326 5.978239 58.028202
-3.953945 5.968157 57.930347
-3.843936 5.958110 57.832821
-3.734296 5.948096 57.735622
-3.625025 5.938117 57.638752
-3.522019 5.938117 57.638752
-3.442115 5.978239 58.028202
-3.355417 6.008688 58.323761
-3.251186 6.008688 58.323761
-3.146956 6.008688 58.323761
-2.564579 5.644526 54.788990
-2.454920 5.617647 54.528088
-2.361222 5.626578 54.614777
-2.278107 5.662588 54.964314
-2.183374 5.671662 55.052399
-2.081654 5.662588 54.964314
-1.983428 5.662588 54.964314
-1.897344 5.699062 55.318352
-1.807216 5.726727 55.586887
-1.710645 5.736009 55.676979
-1.613760 5.745320 55.767365
-1.509199 5.726727 55.586887
-1.396303 5.671662 55.052399
-1.293773 5.653542 54.876511
-1.193796 5.644526 54.788990
-1.095883 5.644526 54.788990
-1.001164 5.662588 54.964314
-0.905836 5.680766 55.140762
-0.811200 5.708254 55.407574
-0.716806 5.745320 55.767365
-0.617145 5.745320 55.767365
-0.515809 5.726727 55.586887
-0.415797 5.717475 55.497086
-0.315599 5.699062 55.318352
-0.216739 5.699062 55.318352
-0.117880 5.699062 55.318352
-0.019114 5.726727 55.586887
0.080355 5.736009 55.676979
0.180734 5.764035 55.949017
0.280720 5.764035 55.949017
0.378856 5.736009 55.676979
0.476810 5.717475 55.497086
0.573210 5.689899 55.229416
0.671911 5.689899 55.229416
0.769374 5.680766 55.140762
0.866525 5.671662 55.052399
0.964908 5.671662 55.052399
1.063292 5.671662 55.052399
1.157965 5.653542 54.876511
1.256034 5.653542 54.876511
1.358444 5.671662 55.052399
1.456828 5.671662 55.052399
1.557708 5.680766 55.140762
1.656250 5.680766 55.140762
1.757612 5.689899 55.229416
1.859302 5.699062 55.318352
-11.041304 2.171598 20.719358
-10.918665 2.154703 20.558167
-10.804337 2.139340 20.411583
-10.685322 2.122941 20.255127
-10.525008 2.098199 20.019053
-10.398338 2.080017 19.845577
-10.279732 2.063329 19.686359
-10.151471 2.044582 19.507494
-10.025520 2.026173 19.331848
-9.901816 2.008092 19.159340
-9.774899 1.989231 18.979389
-9.655626 1.971801 18.813086
-9.543609 1.955735 18.659801
-9.428321 1.938885 18.499029
-9.315002 1.922322 18.341002
-9.198734 1.905031 18.176029
-9.094077 1.890031 18.032911
-8.977028 1.872339 17.864117
-8.885038 1.859767 17.744162
-8.798790 1.848311 17.634853
-8.758283 1.846415 17.616768
-15.626501 3.306252 31.545176
-15.555842 3.303219 31.516235
-15.330741 3.267250 31.173044
-15.096937 3.229156 30.809593
-14.855352 3.189113 30.427542
-14.658159 3.158341 30.133944
-14.439645 3.122731 29.794186
-14.226003 3.087915 29.462004
-14.112833 3.074730 29.336205
-13.988730 3.059056 29.186657
-13.854176 3.040970 29.014101
-13.744283 3.028183 28.892090
-13.704176 3.030731 28.916410
-13.526376 3.025638 28.867811
-24.072758 5.902473 56.315895
-23.547489 5.797921 55.318352
-23.448629 5.797921 55.318352
-23.425215 5.816654 55.497086
-23.326036 5.816654 55.497086
-23.189394 5.807272 55.407574
-23.016130 5.788599 55.229416
-22.770992 5.751612 54.876511
-22.493265 5.706036 54.441673
-22.081028 5.625795 53.676086
-21.985106 5.625795 53.676086
-21.923435 5.634599 53.760086
-22.104095 5.706036 54.441673
-22.006804 5.706036 54.441673
-21.909510 5.706036 54.441673
-21.606766 5.652290 53.928879
-21.443064 5.634599 53.760086
-21.313635 5.625795 53.676086
-21.151611 5.608269 53.508873
-20.893267 5.564929 53.095356
-20.670588 5.530735 52.769119
-20.576283 5.530735 52.769119
-20.450565 5.522253 52.688183
-20.419043 5.539245 52.850300
-20.418835 5.564929 53.095356
-20.514187 5.617019 53.592350
-20.450317 5.625795 53.676086
-20.354393 5.625795 53.676086
-20.258469 5.625795 53.676086
-20.068474 5.599547 53.425655
-19.880243 5.573543 53.177547
-19.693752 5.547780 52.931736
-19.569006 5.539245 52.850300
-19.385088 5.513796 52.607498
-19.291073 5.513796 52.607498
-19.167706 5.505365 52.527058
-19.044714 5.496960 52.446865
-18.922098 5.488581 52.366913
-18.799854 5.480227 52.287209
-18.706413 5.480227 52.287209
-18.612970 5.480227 52.287209
-18.519529 5.480227 52.287209
-18.426086 5.480227 52.287209
-18.332644 5.480227 52.287209
-18.267006 5.488581 52.366913
-18.173422 5.488581 52.366913
-18.079836 5.488581 52.366913
-17.986252 5.488581 52.366913
-17.974869 5.513796 52.607498
-18.802252 5.797921 55.318352
-18.763823 5.816654 55.497086
-18.664644 5.816654 55.497086
-18.747185 5.873587 56.040287
-18.677504 5.883184 56.131855
-18.577190 5.883184 56.131855
-18.537458 5.902473 56.315895
-18.527937 5.931646 56.594227
-18.457205 5.941434 56.687618
-18.325659 5.931646 56.594227
-18.194544 5.921890 56.501144
-18.123381 5.931646 56.594227
-17.362307 5.779308 55.140762
-17.236099 5.770046 55.052399
-17.165224 5.779308 55.140762
-17.094120 5.788599 55.229416
-17.022787 5.797921 55.318352
-16.923929 5.797921 55.318352
-16.825069 5.797921 55.318352
-16.699320 5.788599 55.229416
-16.600618 5.788599 55.229416
-16.475431 5.779308 55.140762
-16.350645 5.770046 55.052399
-16.252260 5.770046 55.052399
-16.153877 5.770046 55.052399
-16.185183 5.816654 55.497086
-16.112032 5.826066 55.586887
-15.986825 5.816654 55.497086
-15.785639 5.779308 55.140762
-15.661958 5.770046 55.052399
-15.563574 5.770046 55.052399
-15.391193 5.742438 54.788990
-15.244654 5.724180 54.614777
-15.075151 5.697008 54.355530
-14.883811 5.661178 54.013672
-14.717860 5.634599 53.760086
-14.598939 5.625795 53.676086
-14.503015 5.625795 53.676086
-14.407090 5.625795 53.676086
-14.356029 5.643431 53.844349
-14.304646 5.661178 54.013672
-14.230494 5.670093 54.098732
-14.337016 5.751612 54.876511
-14.423269 5.826066 55.586887
-14.323931 5.826066 55.586887
-14.224591 5.826066 55.586887
-14.125253 5.826066 55.586887
-14.117288 5.864021 55.949017
-14.132386 5.912166 56.408367
-14.147735 5.961107 56.875324
-14.116206 5.990863 57.159229
-14.131625 6.041122 57.638752
-14.052197 6.051275 57.735622
-13.949018 6.051275 57.735622
-13.869148 6.061463 57.832821
-13.719602 6.041122 57.638752
-13.616595 6.041122 57.638752
-13.536302 6.051275 57.735622
-13.478428 6.071684 57.930347
-13.420163 6.092232 58.126389
-13.293792 6.081941 58.028202
-13.190090 6.081941 58.028202
-13.064321 6.071684 57.930347
-12.938973 6.061463 57.832821
-12.792548 6.041122 57.638752
-12.668287 6.031003 57.542202
-12.523499 6.010866 57.350075
-12.359110 5.980912 57.064278
-12.216544 5.961107 56.875324
-12.035199 5.921890 56.501144
-11.934227 5.921890 56.501144
-11.833254 5.921890 56.501144
-11.732281 5.921890 56.501144
-11.631308 5.921890 56.501144
-11.530335 5.921890 56.501144
-11.410595 5.912166 56.408367
-11.235989 5.873587 56.040287
-11.099625 5.854486 55.858040
-10.981944 5.844982 55.767365
-10.899978 5.854486 55.858040
-10.817744 5.864021 55.949017
-10.717758 5.864021 55.949017
-10.617771 5.864021 55.949017
-10.517785 5.864021 55.949017
-10.451844 5.883184 56.131855
-10.368473 5.892813 56.223724
-10.352715 5.941434 56.687618
-10.319526 5.980912 57.064278
-10.251604 6.000848 57.254494
-10.149285 6.000848 57.254494
-10.063739 6.010866 57.350075
-9.944647 6.000848 57.254494
-9.825952 5.990863 57.159229
-9.707650 5.980912 57.064278
-9.589741 5.970993 56.969643
-9.472222 5.961107 56.875324
-9.263226 5.892813 56.223724
-9.029740 5.807272 55.407574
-8.845124 5.751612 54.876511
-8.747054 5.751612 54.876511
-8.648985 5.751612 54.876511
-8.703858 5.854486 55.858040
-8.688804 5.912166 56.408367
-8.587996 5.912166 56.408367
-8.445586 5.883184 56.131855
-8.345273 5.883184 56.131855
-8.244960 5.883184 56.131855
-8.171351 5.902473 56.315895
-8.083961 5.912166 56.408367
-7.983154 5.912166 56.408367
-7.882348 5.912166 56.408367
-7.781540 5.912166 56.408367
-7.706040 5.931646 56.594227
-7.617451 5.941434 56.687618
-7.516145 5.941434 56.687618
-7.427094 5.951254 56.781315
-7.325621 5.951254 56.781315
-7.212226 5.941434 56.687618
-7.087529 5.921890 56.501144
-6.986556 5.921890 56.501144
-6.896927 5.931646 56.594227
-6.795787 5.931646 56.594227
-6.683638 5.921890 56.501144
-6.571856 5.912166 56.408367
-6.471048 5.912166 56.408367
-6.380719 5.921890 56.501144
-6.279746 5.921890 56.501144
-6.178773 5.921890 56.501144
-6.179436 6.020918 57.445980
-6.138363 6.081941 58.028202
-6.055118 6.102558 58.224907
-5.930959 6.081941 58.028202
-5.847011 6.102558 58.224907
-5.723556 6.081941 58.028202
-5.648478 6.112918 58.323761
-5.525486 6.092232 58.126389
-5.430798 6.102558 58.224907
-5.317731 6.092232 58.126389
-5.213853 6.092232 58.126389
-5.109976 6.092232 58.126389
-5.023098 6.112918 58.323761
-4.918868 6.112918 58.323761
-4.806477 6.102558 58.224907
-4.686537 6.081941 58.028202
-4.575107 6.071684 57.930347
-4.471580 6.071684 57.930347
-4.375432 6.081941 58.028202
-4.271729 6.081941 58.028202
-4.168028 6.081941 58.028202
-4.064326 6.081941 58.028202
-3.953945 6.071684 57.930347
-3.850418 6.071684 57.930347
-3.740583 6.061463 57.832821
-3.631117 6.051275 57.735622
-3.533878 6.061463 57.832821
-3.447939 6.092232 58.126389
-3.355417 6.112918 58.323761
-3.251186 6.112918 58.323761
-3.146956 6.112918 58.323761
-2.576909 5.770046 55.052399
-2.462739 5.733294 54.701744
-2.364981 5.733294 54.701744
-2.281758 5.770046 55.052399
-2.183374 5.770046 55.052399
-2.081654 5.760814 54.964314
-1.983428 5.760814 54.964314
-1.900404 5.807272 55.407574
-1.804296 5.816654 55.497086
-1.707877 5.826066 55.586887
-1.611145 5.835509 55.676979
-1.501908 5.797921 55.318352
-1.398545 5.779308 55.140762
-1.293773 5.751612 54.876511
-1.193796 5.742438 54.788990
-1.095883 5.742438 54.788990
-1.002768 5.770046 55.052399
-0.905836 5.779308 55.140762
-0.811200 5.807272 55.407574
-0.714487 5.826066 55.586887
-0.615148 5.826066 55.586887
-0.514975 5.816654 55.497086
-0.413791 5.788599 55.229416
-0.314081 5.770046 55.052399
-0.215697 5.770046 55.052399
-0.117314 5.770046 55.052399
-0.019021 5.797921 55.318352
0.080225 5.826066 55.586887
0.179564 5.826066 55.586887
0.278453 5.816654 55.497086
0.377022 5.807272 55.407574
0.476041 5.807272 55.407574
0.573210 5.788599 55.229416
0.670832 5.779308 55.140762
0.768141 5.770046 55.052399
0.866525 5.770046 55.052399
0.963365 5.760814 54.964314
1.061591 5.760814 54.964314
1.159817 5.760814 54.964314
1.258044 5.760814 54.964314
1.358444 5.770046 55.052399
1.459166 5.779308 55.140762
1.560212 5.788599 55.229416
1.658912 5.788599 55.229416
1.760443 5.797921 55.318352
1.862301 5.807272 55.407574
-10.955404 2.191442 20.558167
-10.834376 2.174525 20.399464
-10.721519 2.159139 20.255127
-10.585460 2.138961 20.065826
-10.439836 2.116705 19.857050
-10.320827 2.099714 19.697647
-10.192121 2.080625 19.518578
-10.065732 2.061881 19.342733
-9.936056 2.042331 19.159340
-9.814239 2.024268 18.989882
-9.694556 2.006521 18.823395
-9.582160 1.990163 18.669943
-9.466477 1.973007 18.508995
-9.352773 1.956143 18.350800
-9.240995 1.939566 18.195284
-9.126304 1.922257 18.032911
-9.018332 1.906247 17.882715
-8.916749 1.891477 17.744162
-8.834840 1.880791 17.643911
-8.798790 1.879826 17.634853
-15.842904 3.396939 31.867065
-15.727596 3.384381 31.749256
-15.555842 3.359542 31.516235
-15.330741 3.322959 31.173044
-15.110489 3.287164 30.837250
-14.855352 3.243490 30.427542
-14.594150 3.198166 30.002354
-14.402171 3.167734 29.716866
-14.238214 3.143262 29.487293
-14.173351 3.140566 29.462004
-14.060406 3.127157 29.336205
-13.960293 3.116511 29.236338
-13.908045 3.116511 29.236338
-21.941458 4.935176 46.297432
-13.641017 3.079815 28.892090
-13.577965 3.077227 28.867811
-13.526376 3.077227 28.867811
-23.646347 5.896780 55.318352
-23.434280 5.868430 55.052399
-23.335896 5.868430 55.052399
-23.274811 5.877850 55.140762
-23.250912 5.896780 55.318352
-23.114830 5.887300 55.229416
-22.942360 5.868430 55.052399
-22.770992 5.849681 54.876511
-22.600716 5.831052 54.701744
-22.150248 5.739656 53.844349
-22.019510 5.730674 53.760086
-21.923435 5.730674 53.760086
-22.069120 5.794146 54.355530
-22.006804 5.803329 54.441673
-21.874844 5.794146 54.355530
-21.640738 5.757705 54.013672
-21.476673 5.739656 53.844349
-21.346991 5.730674 53.760086
-21.151611 5.703895 53.508873
-20.958052 5.677365 53.259995
-20.702387 5.633693 52.850300
-20.576283 5.625039 52.769119
-20.481979 5.625039 52.769119
-20.482063 5.651081 53.013420
-20.609962 5.712793 53.592350
-20.546242 5.721719 53.676086
-20.546629 5.748666 53.928879
-20.514664 5.766772 54.098732
-20.353878 5.748666 53.928879
-20.162544 5.721719 53.676086
-19.941982 5.686181 53.342693
-19.785210 5.668577 53.177547
-19.690176 5.668577 53.177547
-19.564857 5.659815 53.095356
-19.291073 5.607811 52.607498
-19.167706 5.599236 52.527058
-19.044714 5.590688 52.446865
-18.922098 5.582165 52.366913
-18.828514 5.582165 52.366913
-18.706413 5.573669 52.287209
-18.612970 5.573669 52.287209
-18.519529 5.573669 52.287209
-18.426086 5.573669 52.287209
-18.332644 5.573669 52.287209
-18.267006 5.582165 52.366913
-18.173422 5.582165 52.366913
-18.079836 5.582165 52.366913
-17.986252 5.582165 52.366913
-17.919985 5.590688 52.446865
-18.711857 5.868430 55.052399
-18.733559 5.906291 55.407574
-18.664644 5.915833 55.497086
-18.747185 5.973736 56.040287
-18.677504 5.983498 56.131855
-18.577190 5.983498 56.131855
-18.507118 5.993290 56.223724
-18.497463 6.022862 56.501144
-18.426798 6.032785 56.594227
-18.325659 6.032785 56.594227
-18.194544 6.022862 56.501144
-18.093573 6.022862 56.501144
-17.904255 5.993290 56.223724
-17.545336 5.906291 55.407574
-17.362307 5.877850 55.140762
-17.319365 5.896780 55.318352
-17.192820 5.887300 55.229416
-17.121647 5.896780 55.318352
-17.050243 5.906291 55.407574
-16.951225 5.906291 55.407574
-16.825069 5.896780 55.318352
-16.726210 5.896780 55.318352
-16.600618 5.887300 55.229416
-16.449028 5.868430 55.052399
-16.350645 5.868430 55.052399
-16.226257 5.859041 54.964314
-16.153877 5.868430 55.052399
-16.185183 5.915833 55.497086
-16.112032 5.925405 55.586887
-15.986825 5.915833 55.497086
-15.811018 5.887300 55.229416
-15.687098 5.877850 55.140762
-15.563574 5.868430 55.052399
-15.440446 5.859041 54.964314
-15.244654 5.821781 54.614777
-15.027596 5.775868 54.184063
-14.883811 5.757705 54.013672
-14.717860 5.730674 53.760086
-14.598939 5.721719 53.676086
-14.503015 5.721719 53.676086
-14.407090 5.721719 53.676086
-14.333563 5.730674 53.760086
-14.282190 5.748666 53.928879
-14.208118 5.757705 54.013672
-14.133814 5.766772 54.098732
-14.238947 5.849681 54.876511
-14.254733 5.896780 55.318352
-14.155873 5.896780 55.318352
-14.057014 5.896780 55.318352
-13.980668 5.906291 55.407574
-14.017302 5.964007 55.949017
-14.054657 6.022862 56.501144
-14.069386 6.072803 56.969643
-14.014057 6.093012 57.159229
-14.052197 6.154455 57.735622
-13.972501 6.164815 57.832821
-13.869148 6.164815 57.832821
-13.742660 6.154455 57.735622
-13.616595 6.144128 57.638752
-13.536302 6.154455 57.735622
-13.524040 6.196109 58.126389
-13.442909 6.206611 58.224907
-13.316286 6.196109 58.126389
-13.190090 6.185643 58.028202
-13.086389 6.185643 58.028202
-12.960793 6.175211 57.930347
-12.835621 6.164815 57.832821
-12.689543 6.144128 57.638752
-12.544441 6.123580 57.445980
-12.379675 6.093012 57.159229
-12.216544 6.062749 56.875324
-12.055027 6.032785 56.594227
-11.953888 6.032785 56.594227
-11.852749 6.032785 56.594227
-11.751609 6.032785 56.594227
-11.650470 6.032785 56.594227
-11.549331 6.032785 56.594227
-11.448192 6.032785 56.594227
-11.347053 6.032785 56.594227
-11.227417 6.022862 56.501144
-11.089964 6.003116 56.315895
-10.953409 5.983498 56.131855
-10.835391 5.973736 56.040287
-10.735242 5.973736 56.040287
-10.635093 5.973736 56.040287
-10.552157 5.983498 56.131855
-10.468950 5.993290 56.223724
-10.368473 5.993290 56.223724
-10.318661 6.022862 56.501144
-10.285355 6.062749 56.875324
-10.200602 6.072803 56.969643
-10.082071 6.062749 56.875324
-9.980430 6.062749 56.875324
-9.878788 6.062749 56.875324
-9.777147 6.062749 56.875324
-9.675506 6.062749 56.875324
-9.573864 6.062749 56.875324
-9.409904 6.022862 56.501144
-9.293647 6.012973 56.408367
-9.044329 5.915833 55.497086
-8.873474 5.868430 55.052399
-8.747054 5.849681 54.876511
-8.676706 5.868430 55.052399
-8.703858 5.954309 55.858040
-8.674561 6.003116 56.315895
-8.573918 6.003116 56.315895
-8.459409 5.993290 56.223724
-8.358932 5.993290 56.223724
-8.271993 6.003116 56.315895
-8.184769 6.012973 56.408367
-8.083961 6.012973 56.408367
-7.983154 6.012973 56.408367
-7.882348 6.012973 56.408367
-7.794339 6.022862 56.501144
-7.706040 6.032785 56.594227
-7.617451 6.042740 56.687618
-7.516145 6.042740 56.687618
-7.427094 6.052728 56.781315
-7.313532 6.042740 56.687618
-7.200345 6.032785 56.594227
-7.087529 6.022862 56.501144
-6.998066 6.032785 56.594227
-6.896927 6.032785 56.594227
-6.795787 6.032785 56.594227
-6.683638 6.022862 56.501144
-6.571856 6.012973 56.408367
-6.481692 6.022862 56.501144
-6.401777 6.042740 56.687618
-6.300471 6.042740 56.687618
-6.240355 6.082891 57.064278
-6.179436 6.123580 57.445980
-6.138363 6.185643 58.028202
-6.044872 6.196109 58.126389
-5.930959 6.185643 58.028202
-5.837118 6.196109 58.126389
-5.723556 6.185643 58.028202
-5.638904 6.206611 58.224907
-5.534851 6.206611 58.224907
-5.440018 6.217148 58.323761
-5.326744 6.206611 58.224907
-5.205046 6.185643 58.028202
-5.101345 6.185643 58.028202
-5.014584 6.206611 58.224907
-4.910531 6.206611 58.224907
-4.806477 6.206611 58.224907
-4.686537 6.185643 58.028202
-4.582835 6.185643 58.028202
-4.479133 6.185643 58.028202
-4.375432 6.185643 58.028202
-4.271729 6.185643 58.028202
-4.168028 6.185643 58.028202
-4.064326 6.185643 58.028202
-3.953945 6.175211 57.930347
-3.850418 6.175211 57.930347
-3.746891 6.175211 57.930347
-3.643364 6.175211 57.930347
-3.545816 6.185643 58.028202
-3.447939 6.196109 58.126389
-3.361123 6.227722 58.422951
-3.256716 6.227722 58.422951
-3.146956 6.217148 58.323761
-3.037569 6.206611 58.224907
-2.913761 6.164815 57.832821
-2.732214 5.993290 56.223724
-2.581045 5.877850 55.140762
-2.466666 5.840352 54.788990
-2.368753 5.840352 54.788990
-2.281758 5.868430 55.052399
-2.183374 5.868430 55.052399
-2.078329 5.849681 54.876511
-1.980259 5.849681 54.876511
-1.897344 5.896780 55.318352
-1.801386 5.906291 55.407574
-1.702367 5.906291 55.407574
-1.600767 5.896780 55.318352
-1.499493 5.887300 55.229416
-1.398545 5.877850 55.140762
-1.295843 5.859041 54.964314
-1.195703 5.849681 54.876511
-1.099390 5.859041 54.964314
-1.002768 5.868430 55.052399
-0.905836 5.877850 55.140762
-0.809894 5.896780 55.318352
-0.713332 5.915833 55.497086
-0.614154 5.915833 55.497086
-0.512491 5.887300 55.229416
-0.411805 5.859041 54.964314
-0.313078 5.849681 54.876511
-0.215008 5.849681 54.876511
-0.116939 5.849681 54.876511
-0.018930 5.868430 55.052399
0.079710 5.887300 55.229416
0.178697 5.896780 55.318352
0.277556 5.896780 55.318352
0.376415 5.896780 55.318352
0.474510 5.887300 55.229416
0.573210 5.887300 55.229416
0.670832 5.877850 55.140762
0.768141 5.868430 55.052399
0.865138 5.859041 54.964314
0.961826 5.849681 54.876511
1.061591 5.859041 54.964314
1.159817 5.859041 54.964314
1.260060 5.868430 55.052399
1.360624 5.877850 55.140762
1.459166 5.877850 55.140762
1.560212 5.887300 55.229416
1.664264 5.906291 55.407574
1.763282 5.906291 55.407574
1.862301 5.906291 55.407574
-10.870831 2.210981 20.399464
-10.757718 2.195337 20.255127
-10.627526 2.176091 20.077555
-10.499599 2.157180 19.903069
-10.356030 2.134915 19.697647
-10.232816 2.116709 19.529673
-10.105989 2.097629 19.353632
-9.975860 2.077730 19.170031
-9.853622 2.059343 19.000385
-9.733529 2.041278 18.833715
-9.620753 2.024629 18.680096
-9.499555 2.006084 18.508995
-9.385568 1.988938 18.350800
-9.273512 1.972083 18.195284
-9.163341 1.955510 18.042381
-9.050291 1.938205 17.882715
-8.953084 1.924182 17.753330
-8.870928 1.913305 17.652979
-8.834840 1.912323 17.643911
-16.018730 3.479712 32.105324
-15.961356 3.479712 32.105324
-15.771324 3.450688 31.837530
-15.555842 3.415864 31.516235
-15.456977 3.406488 31.429731
-15.275031 3.378668 31.173044
-15.055380 3.342273 30.837250
-14.735716 3.283326 30.293383
-14.477313 3.237645 29.871910
-14.311923 3.212504 29.639944
-14.209911 3.201455 29.538002
-9.652197 2.224189 20.521324
-23.707031 5.986000 55.229416
-23.532663 5.966814 55.052399
-23.396786 5.957267 54.964314
-23.298559 5.957267 54.964314
-23.237513 5.966814 55.052399
-23.176270 5.976391 55.140762
-23.077728 5.976391 55.140762
-22.942360 5.966814 55.052399
-22.807426 5.957267 54.964314
-22.672924 5.947751 54.876511
-22.254894 5.863452 54.098732
-22.019510 5.826748 53.760086
-21.923435 5.826748 53.760086
-21.999502 5.872700 54.184063
-21.902670 5.872700 54.184063
-21.805838 5.872700 54.184063
-21.640738 5.854233 54.013672
-21.476673 5.835881 53.844349
-21.414013 5.845042 53.928879
-21.217710 5.817644 53.676086
-21.055986 5.799520 53.508873
-20.862871 5.772546 53.259995
-20.767691 5.772546 53.259995
-20.672510 5.772546 53.259995
-20.738091 5.817644 53.676086
-20.706875 5.835881 53.844349
-20.643005 5.845042 53.928879
-20.546629 5.845042 53.928879
-20.514664 5.863452 54.098732
-20.417984 5.863452 54.098732
-20.321304 5.863452 54.098732
-20.161125 5.845042 53.928879
-20.001949 5.826748 53.760086
-19.905874 5.826748 53.760086
-19.747992 5.808568 53.592350
-19.500109 5.763610 53.177547
-19.197058 5.701825 52.607498
-19.044714 5.684415 52.446865
-18.950987 5.684415 52.446865
-18.828514 5.675750 52.366913
-18.734928 5.675750 52.366913
-18.612970 5.667111 52.287209
-18.491383 5.658498 52.207745
-18.426086 5.667111 52.287209
-18.332644 5.667111 52.287209
-18.267006 5.675750 52.366913
-18.173422 5.675750 52.366913
-18.079836 5.675750 52.366913
-17.986252 5.675750 52.366913
-17.892668 5.675750 52.366913
-17.826258 5.684415 52.446865
-18.703392 5.995639 55.318352
-18.664644 6.015011 55.497086
-18.747185 6.073886 56.040287
-18.677504 6.083810 56.131855
-18.577190 6.083810 56.131855
-18.476877 6.083810 56.131855
-18.436815 6.103757 56.315895
-18.396490 6.123836 56.501144
-18.355898 6.144046 56.687618
-18.224520 6.133924 56.594227
-18.093573 6.123836 56.501144
-17.644356 6.005310 55.407574
-17.545336 6.005310 55.407574
-17.446318 6.005310 55.407574
-17.347300 6.005310 55.407574
-17.248281 6.005310 55.407574
-17.149261 6.005310 55.407574
-17.050243 6.005310 55.407574
-16.951225 6.005310 55.407574
-16.825069 5.995639 55.318352
-16.699320 5.986000 55.229416
-16.547413 5.966814 55.052399
-16.449028 5.966814 55.052399
-16.324484 5.957267 54.964314
-16.174498 5.938265 54.788990
-16.102266 5.947751 54.876511
-16.081264 5.976391 55.140762
-16.086004 6.015011 55.497086
-15.935337 5.995639 55.318352
-15.811018 5.986000 55.229416
-15.687098 5.976391 55.140762
-15.563574 5.966814 55.052399
-15.440446 5.957267 54.964314
-15.196335 5.900621 54.441673
-15.003930 5.863452 54.098732
-14.883811 5.854233 54.013672
-14.740929 5.835881 53.844349
-14.621785 5.826748 53.760086
-14.503015 5.817644 53.676086
-14.407090 5.817644 53.676086
-14.311167 5.817644 53.676086
-14.259804 5.835881 53.844349
-14.208118 5.854233 54.013672
-14.133814 5.863452 54.098732
-14.081486 5.881978 54.269661
-14.208971 5.976391 55.140762
-14.155873 5.995639 55.318352
-14.057014 5.995639 55.318352
-13.958156 5.995639 55.318352
-13.904076 6.015011 55.497086
-13.917315 6.063993 55.949017
-14.022876 6.154202 56.781315
-13.967576 6.174613 56.969643
-14.052197 6.257634 57.735622
-13.972501 6.268168 57.832821
-13.869148 6.268168 57.832821
-13.742660 6.257634 57.735622
-13.639481 6.257634 57.735622
-13.536302 6.257634 57.735622
-13.546963 6.310664 58.224907
-13.488633 6.332129 58.422951
-13.384226 6.332129 58.422951
-13.212408 6.299986 58.126389
-13.086389 6.289344 58.028202
-12.982686 6.289344 58.028202
-12.857266 6.278738 57.930347
-12.732268 6.268168 57.832821
-12.586536 6.247134 57.638752
-12.421009 6.215846 57.350075
-12.257131 6.184870 57.064278
-12.114902 6.164391 56.875324
-11.953888 6.133924 56.594227
-11.872308 6.144046 56.687618
-11.771002 6.144046 56.687618
-11.650470 6.133924 56.594227
-11.549331 6.133924 56.594227
-11.467083 6.144046 56.687618
-11.422323 6.174613 56.969643
-11.320513 6.174613 56.969643
-11.181616 6.154202 56.781315
-11.025471 6.123836 56.501144
-10.924498 6.123836 56.501144
-10.752783 6.083810 56.131855
-10.652471 6.083810 56.131855
-10.552157 6.083810 56.131855
-10.451844 6.083810 56.131855
-10.368473 6.093768 56.223724
-10.318661 6.123836 56.501144
-10.217688 6.123836 56.501144
-10.150104 6.144046 56.687618
-10.048798 6.144046 56.687618
-9.947492 6.144046 56.687618
-9.846185 6.144046 56.687618
-9.744879 6.144046 56.687618
-9.627686 6.133924 56.594227
-9.510878 6.123836 56.501144
-9.394453 6.113780 56.408367
-9.263226 6.093768 56.223724
-9.132854 6.073886 56.040287
-8.945149 6.015011 55.497086
-8.803306 5.986000 55.229416
-8.803682 6.054133 55.858040
-8.746525 6.083810 56.131855
-8.674561 6.103757 56.315895
-8.573918 6.103757 56.315895
-8.487190 6.113780 56.408367
-8.400176 6.123836 56.501144
-8.299203 6.123836 56.501144
-8.198231 6.123836 56.501144
-8.097258 6.123836 56.501144
-7.996284 6.123836 56.501144
-7.895312 6.123836 56.501144
-7.794339 6.123836 56.501144
-7.706040 6.133924 56.594227
-7.617451 6.144046 56.687618
-7.528568 6.154202 56.781315
-7.427094 6.154202 56.781315
-7.313532 6.144046 56.687618
-7.212226 6.144046 56.687618
-7.099205 6.133924 56.594227
-7.009614 6.144046 56.687618
-6.908308 6.144046 56.687618
-6.795787 6.133924 56.594227
-6.694648 6.133924 56.594227
-6.582664 6.123836 56.501144
-6.524617 6.164391 56.875324
-6.487420 6.226241 57.445980
-6.384758 6.226241 57.445980
-6.282097 6.226241 57.445980
-6.189786 6.236670 57.542202
-6.138363 6.289344 58.028202
-6.044872 6.299986 58.126389
-5.930959 6.289344 58.028202
-5.837118 6.299986 58.126389
-5.723556 6.289344 58.028202
-5.629363 6.299986 58.126389
-5.544248 6.321379 58.323761
-5.449269 6.332129 58.422951
-5.326744 6.310664 58.224907
-5.205046 6.289344 58.028202
-5.101345 6.289344 58.028202
-5.014584 6.310664 58.224907
-4.910531 6.310664 58.224907
-4.798344 6.299986 58.126389
-4.686537 6.289344 58.028202
-4.582835 6.289344 58.028202
-4.479133 6.289344 58.028202
-4.375432 6.289344 58.028202
-4.271729 6.289344 58.028202
-4.168028 6.289344 58.028202
-4.057472 6.278738 57.930347
-3.953945 6.278738 57.930347
-3.856922 6.289344 58.028202
-3.753220 6.289344 58.028202
-3.649518 6.289344 58.028202
-3.545816 6.289344 58.028202
-3.442115 6.289344 58.028202
-3.361123 6.332129 58.422951
-3.256716 6.332129 58.422951
-3.146956 6.321379 58.323761
-3.027307 6.289344 58.028202
-2.889440 6.215846 57.350075
-2.732214 6.093768 56.223724
-2.589358 5.995639 55.318352
-2.470607 5.947751 54.876511
-2.372537 5.947751 54.876511
-2.281758 5.966814 55.052399
-2.183374 5.966814 55.052399
-2.078329 5.947751 54.876511
-1.980259 5.947751 54.876511
-1.888222 5.966814 55.052399
-1.798485 5.995639 55.318352
-1.699626 5.995639 55.318352
-1.598193 5.986000 55.229416
-1.497086 5.976391 55.140762
-1.396303 5.966814 55.052399
-1.295843 5.957267 54.964314
-1.197616 5.957267 54.964314
-1.099390 5.957267 54.964314
-1.001164 5.957267 54.964314
-0.904384 5.966814 55.052399
-0.807294 5.976391 55.140762
-0.709892 5.986000 55.229416
-0.611192 5.986000 55.229416
-0.510032 5.957267 54.964314
-0.409186 5.919383 54.614777
-0.310597 5.900621 54.441673
-0.213305 5.900621 54.441673
-0.116012 5.900621 54.441673
-0.018749 5.909987 54.528088
0.079454 5.966814 55.052399
0.178410 5.986000 55.229416
0.277110 5.986000 55.229416
0.375810 5.986000 55.229416
0.474510 5.986000 55.229416
0.573210 5.986000 55.229416
0.670832 5.976391 55.140762
0.768141 5.966814 55.052399
0.865138 5.957267 54.964314
0.961826 5.947751 54.876511
1.059895 5.947751 54.876511
1.159817 5.957267 54.964314
1.260060 5.966814 55.052399
1.360624 5.976391 55.140762
1.459166 5.976391 55.140762
1.560212 5.986000 55.229416
1.661584 5.995639 55.318352
1.763282 6.005310 55.407574
1.862301 6.005310 55.407574
-10.793916 2.231535 20.255127
-10.663407 2.211972 20.077555
-10.541274 2.194019 19.914606
-10.421107 2.176356 19.754282
-10.273558 2.152835 19.540783
-10.146293 2.133418 19.364540
-10.021302 2.114348 19.191450
-9.898527 2.095617 19.021425
-9.777908 2.077214 18.854389
-9.664647 2.060252 18.700434
-9.548066 2.042463 18.538961
-9.433480 2.024978 18.380255
-9.320840 2.007790 18.224241
-9.205253 1.989844 18.061354
-9.086979 1.971189 17.892029
-8.994106 1.957932 17.771700
-8.953084 1.955909 17.753330
-8.921357 1.955909 17.753330
-16.258444 3.577205 32.469467
-16.169851 3.570456 32.408203
-15.961356 3.537087 32.105324
-15.800612 3.514098 31.896654
-15.670857 3.497859 31.749256
-15.542296 3.481770 31.603216
-9.823846 2.292358 20.807205
-9.652197 2.260862 20.521324
-9.667500 2.273083 20.632250
-23.882524 6.104328 55.407574
-23.707031 6.084700 55.229416
-23.532663 6.065198 55.052399
-23.396786 6.055493 54.964314
-23.448629 6.094498 55.318352
-23.274811 6.074933 55.140762
-23.176270 6.074933 55.140762
-23.077728 6.074933 55.140762
-22.979187 6.074933 55.140762
-22.880644 6.074933 55.140762
-22.709200 6.055493 54.964314
-22.289997 5.969532 54.184063
-22.158216 5.960131 54.098732
-22.061537 5.960131 54.098732
-21.999502 5.969532 54.184063
-21.902670 5.969532 54.184063
-21.805838 5.969532 54.184063
-21.640738 5.950760 54.013672
-21.510389 5.941418 53.928879
-21.447683 5.950760 54.013672
-21.351156 5.950760 54.013672
-21.154840 5.922822 53.760086
-20.960361 5.895145 53.508873
-20.864737 5.895145 53.508873
-20.866617 5.922822 53.760086
-20.803099 5.932106 53.844349
-20.706875 5.932106 53.844349
-20.643005 5.941418 53.928879
-20.546629 5.941418 53.928879
-20.514664 5.960131 54.098732
-20.514904 5.988423 54.355530
-20.450125 5.997913 54.441673
-20.417547 6.016985 54.614777
-20.352301 6.026566 54.701744
-20.254545 6.026566 54.701744
-20.060955 5.997913 54.441673
-19.652216 5.904342 53.592350
-19.375084 5.849588 53.095356
-19.073835 5.786978 52.527058
-18.950987 5.778142 52.446865
-18.828514 5.769334 52.366913
-18.734928 5.769334 52.366913
-18.612970 5.760553 52.287209
-18.519529 5.760553 52.287209
-18.426086 5.760553 52.287209
-18.332644 5.760553 52.287209
-18.267006 5.769334 52.366913
-18.173422 5.769334 52.366913
-18.079836 5.769334 52.366913
-17.986252 5.769334 52.366913
-17.892668 5.769334 52.366913
-17.799082 5.769334 52.366913
-17.732529 5.778142 52.446865
-17.719961 5.804729 52.688183
-18.565466 6.114190 55.497086
-18.647034 6.174035 56.040287
-18.456560 6.143967 55.767365
-18.267931 6.114190 55.497086
-18.376564 6.184123 56.131855
-18.396490 6.224808 56.501144
-18.063862 6.214587 56.408367
-17.787806 6.153957 55.858040
-17.774687 6.184123 56.131855
-17.761440 6.214587 56.408367
-17.718822 6.235063 56.594227
-17.559826 6.214587 56.408367
-17.288687 6.153957 55.858040
-17.105423 6.124083 55.586887
-16.951225 6.104328 55.407574
-16.798019 6.084700 55.229416
-16.645796 6.065198 55.052399
-16.520937 6.055493 54.964314
-16.396475 6.045820 54.876511
-16.272411 6.036178 54.788990
-16.148743 6.026566 54.701744
-16.050985 6.026566 54.701744
-16.004198 6.045820 54.876511
-15.982722 6.074933 55.140762
-15.884181 6.074933 55.140762
-15.785639 6.074933 55.140762
-15.661958 6.065198 55.052399
-15.538672 6.055493 54.964314
-15.391193 6.036178 54.788990
-15.172290 5.988423 54.355530
-15.027596 5.969532 54.184063
-14.907250 5.960131 54.098732
-14.787284 5.950760 54.013672
-14.667694 5.941418 53.928879
-14.571318 5.941418 53.928879
-14.407090 5.913568 53.676086
-14.333563 5.922822 53.760086
-14.237488 5.922822 53.760086
-14.230494 5.960131 54.098732
-14.156107 5.969532 54.184063
-14.059276 5.969532 54.184063
-14.186200 6.065198 55.052399
-14.155873 6.094498 55.318352
-14.057014 6.094498 55.318352
-13.980668 6.104328 55.407574
-13.994509 6.153957 55.858040
-14.031579 6.214587 56.408367
-14.022876 6.255675 56.781315
-13.967576 6.276423 56.969643
-14.075853 6.371521 57.832821
-13.996063 6.382266 57.930347
-13.892536 6.382266 57.930347
-13.742660 6.360813 57.735622
-13.639481 6.360813 57.735622
-13.536302 6.360813 57.735622
-13.524040 6.403864 58.126389
-13.488633 6.436536 58.422951
-13.316286 6.403864 58.126389
-13.190090 6.393046 58.028202
-13.086389 6.393046 58.028202
-12.982686 6.393046 58.028202
-12.878984 6.393046 58.028202
-12.775283 6.393046 58.028202
-12.628916 6.371521 57.832821
-12.462621 6.339503 57.542202
-12.318519 6.318336 57.350075
-12.155151 6.286849 57.064278
-11.993404 6.255675 56.781315
-11.872308 6.245352 56.687618
-11.751609 6.235063 56.594227
-11.650470 6.235063 56.594227
-11.568389 6.245352 56.687618
-11.524133 6.276423 56.969643
-11.441297 6.286849 57.064278
-11.396109 6.318336 57.350075
-11.237338 6.286849 57.064278
-11.080143 6.255675 56.781315
-10.942495 6.235063 56.594227
-10.823525 6.224808 56.501144
-10.687396 6.204399 56.315895
-10.552157 6.184123 56.131855
-10.434794 6.174035 56.040287
-10.334644 6.174035 56.040287
-10.267996 6.194244 56.223724
-10.217688 6.224808 56.501144
-10.133382 6.235063 56.594227
-10.032243 6.235063 56.594227
-9.947492 6.245352 56.687618
-9.829964 6.235063 56.594227
-9.728825 6.235063 56.594227
-9.611851 6.224808 56.501144
-9.464180 6.194244 56.223724
-9.363703 6.194244 56.223724
-9.248090 6.184123 56.131855
-9.147777 6.184123 56.131855
-9.047463 6.184123 56.131855
-8.947150 6.184123 56.131855
-8.846838 6.184123 56.131855
-8.760839 6.194244 56.223724
-8.674561 6.204399 56.315895
-8.602122 6.224808 56.501144
-8.501149 6.224808 56.501144
-8.414015 6.235063 56.594227
-8.312876 6.235063 56.594227
-8.211737 6.235063 56.594227
-8.110598 6.235063 56.594227
-7.996284 6.224808 56.501144
-7.908319 6.235063 56.594227
-7.807180 6.235063 56.594227
-7.706040 6.235063 56.594227
-7.617451 6.245352 56.687618
-7.528568 6.255675 56.781315
-7.427094 6.255675 56.781315
-7.325621 6.255675 56.781315
-7.224147 6.255675 56.781315
-7.122674 6.255675 56.781315
-7.021200 6.255675 56.781315
-6.942677 6.276423 56.969643
-6.829542 6.266032 56.875324
-6.727900 6.266032 56.875324
-6.659335 6.297310 57.159229
-6.601120 6.339503 57.542202
-6.520129 6.360813 57.735622
-6.416950 6.360813 57.735622
-6.303178 6.350140 57.638752
-6.221048 6.371521 57.832821
-6.138363 6.393046 58.028202
-6.044872 6.403864 58.126389
-5.930959 6.393046 58.028202
-5.837118 6.403864 58.126389
-5.723556 6.393046 58.028202
-5.629363 6.403864 58.126389
-5.553677 6.436536 58.422951
-5.449269 6.436536 58.422951
-5.335788 6.425609 58.323761
-5.213853 6.403864 58.126389
-5.109976 6.403864 58.126389
-5.014584 6.414718 58.224907
-4.910531 6.414718 58.224907
-4.798344 6.403864 58.126389
-4.686537 6.393046 58.028202
-4.575107 6.382266 57.930347
-4.471580 6.382266 57.930347
-4.375432 6.393046 58.028202
-4.264526 6.382266 57.930347
-4.160999 6.382266 57.930347
-4.057472 6.382266 57.930347
-3.953945 6.382266 57.930347
-3.856922 6.393046 58.028202
-3.753220 6.393046 58.028202
-3.649518 6.393046 58.028202
-3.545816 6.393046 58.028202
-3.442115 6.393046 58.028202
-3.361123 6.436536 58.422951
-3.262264 6.447502 58.522480
-3.152308 6.436536 58.422951
-3.037569 6.414718 58.224907
-2.913761 6.371521 57.832821
-2.732214 6.194244 56.223724
-2.593534 6.104328 55.407574
-2.474560 6.055493 54.964314
-2.376333 6.055493 54.964314
-2.274468 6.045820 54.876511
-2.176398 6.045820 54.876511
-2.075014 6.036178 54.788990
-1.977101 6.036178 54.788990
-1.885201 6.055493 54.964314
-1.789839 6.065198 55.052399
-1.691455 6.065198 55.052399
-1.593071 6.065198 55.052399
-1.494687 6.065198 55.052399
-1.396303 6.065198 55.052399
-1.297919 6.065198 55.052399
-1.197616 6.055493 54.964314
-1.097634 6.045820 54.876511
-1.001164 6.055493 54.964314
-0.901495 6.045820 54.876511
-0.804711 6.055493 54.964314
-0.707617 6.065198 55.052399
-0.607286 6.045820 54.876511
-0.506788 6.016985 54.614777
-0.407889 5.997913 54.441673
-0.307189 5.932106 53.844349
-0.210964 5.932106 53.844349
-0.114739 5.932106 53.844349
-0.018543 5.941418 53.928879
0.078573 5.997913 54.441673
0.177838 6.065198 55.052399
0.276665 6.074933 55.140762
0.375810 6.084700 55.229416
0.474510 6.084700 55.229416
0.573210 6.084700 55.229416
0.669757 6.065198 55.052399
0.766912 6.055493 54.964314
0.865138 6.055493 54.964314
0.961826 6.045820 54.876511
1.059895 6.045820 54.876511
1.159817 6.055493 54.964314
1.260060 6.065198 55.052399
1.358444 6.065198 55.052399
1.459166 6.074933 55.140762
1.560212 6.084700 55.229416
1.661584 6.094498 55.318352
1.760443 6.094498 55.318352
1.859302 6.094498 55.318352
-10.699287 2.247852 20.077555
-10.576863 2.229609 19.914606
-10.456410 2.211659 19.754282
-10.314346 2.189001 19.551905
-10.180899 2.168024 19.364540
-10.055599 2.148645 19.191450
-9.932520 2.129610 19.021425
-9.822385 2.113228 18.875107
-9.698067 2.093672 18.700434
-9.581197 2.075594 18.538961
-9.471395 2.058927 18.390095
-9.358373 2.041441 18.233915
-9.237531 2.022121 18.061354
-9.128463 2.005253 17.910686
-9.025867 1.989692 17.771700
-8.989456 1.988663 17.762510
-8.957713 1.988663 17.762510
-16.456459 3.666420 32.748043
-16.351173 3.655965 32.654655
-16.185120 3.631799 32.438805
-16.036291 3.611338 32.256054
-15.903980 3.594463 32.105324
-15.772901 3.577744 31.955996
-9.835761 2.332368 20.832441
-9.733602 2.316913 20.694395
-9.696618 2.316913 20.694395
-23.882524 6.203347 55.407574
-23.783506 6.203347 55.407574
-23.615973 6.263966 55.949017
-23.363779 6.223422 55.586887
-23.152052 6.193357 55.318352
-23.053194 6.193357 55.318352
-22.954334 6.193357 55.318352
-22.855474 6.193357 55.318352
-22.610973 6.153720 54.964314
-22.440937 6.134091 54.788990
-22.201387 6.095206 54.441673
-22.139181 6.104881 54.528088
-22.006804 6.095206 54.441673
-21.805838 6.066364 54.184063
-21.640738 6.047287 54.013672
-21.544210 6.047287 54.013672
-21.447683 6.047287 54.013672
-21.452345 6.075948 54.269661
-21.355360 6.075948 54.269661
-21.158100 6.047287 54.013672
-21.061573 6.047287 54.013672
-20.998062 6.056811 54.098732
-20.901382 6.056811 54.098732
-20.706875 6.028331 53.844349
-20.610649 6.028331 53.844349
-20.546629 6.037794 53.928879
-20.612043 6.085562 54.355530
-20.547417 6.095206 54.441673
-20.580587 6.134091 54.788990
-20.515394 6.143890 54.876511
-20.449993 6.153720 54.964314
-20.384380 6.163582 55.052399
-20.156788 6.124323 54.701744
-19.963661 6.095206 54.441673
-19.495613 5.981454 53.425655
-19.250444 5.935301 53.013420
-18.979963 5.880848 52.527058
-18.828514 5.862919 52.366913
-18.734928 5.862919 52.366913
-18.641344 5.862919 52.366913
-18.519529 5.853995 52.287209
-18.426086 5.853995 52.287209
-18.332644 5.853995 52.287209
-18.267006 5.862919 52.366913
-18.145760 5.853995 52.287209
-18.052319 5.853995 52.287209
-17.986252 5.862919 52.366913
-17.892668 5.862919 52.366913
-17.799082 5.862919 52.366913
-17.705498 5.862919 52.366913
-17.638802 5.871870 52.446865
-17.571901 5.880848 52.527058
-18.201643 6.124323 54.701744
-18.219936 6.163582 55.052399
-18.121553 6.163582 55.052399
-18.257236 6.243628 55.767365
-18.365429 6.420826 57.350075
-18.022242 6.336203 56.594227
-17.921103 6.336203 56.594227
-17.849369 6.346658 56.687618
-17.748062 6.346658 56.687618
-17.617683 6.336203 56.594227
-17.316845 6.263966 55.949017
-17.188864 6.253780 55.858040
-17.006084 6.223422 55.586887
-16.798019 6.183400 55.229416
-16.619164 6.153720 54.964314
-16.494545 6.143890 54.876511
-16.370325 6.134091 54.788990
-16.272411 6.134091 54.788990
-16.123070 6.114586 54.614777
-16.025467 6.114586 54.614777
-15.953229 6.124323 54.701744
-15.931578 6.153720 54.964314
-15.858726 6.163582 55.052399
-15.760342 6.163582 55.052399
-15.636898 6.153720 54.964314
-15.513850 6.143890 54.876511
-15.342256 6.114586 54.614777
-15.148321 6.075948 54.269661
-15.003930 6.056811 54.098732
-14.907250 6.056811 54.098732
-14.833931 6.066364 54.184063
-14.713891 6.056811 54.098732
-14.571318 6.037794 53.928879
-14.474942 6.037794 53.928879
-14.333563 6.018897 53.760086
-14.237488 6.018897 53.760086
-14.208118 6.047287 54.013672
-14.156107 6.066364 54.184063
-14.059276 6.066364 54.184063
-13.984501 6.075948 54.269661
-14.155873 6.193357 55.318352
-14.845928 6.540944 58.422951
-14.617225 6.485793 57.930347
-14.249375 6.367674 56.875324
-14.147735 6.367674 56.875324
-14.069386 6.378234 56.969643
